0.895338376363	1.15396006902	0.939346313477	0.38653111745062	-0.91715385069747	-0.097069611069462
0.880770683289	1.27155995369	0.888279676437	0.115578647726582	0.962689155184985	-0.244685853042046
0.769737323125	1.20782661438	1.03908665975	-0.937975557829167	-0.231470825791617	0.258114528305577
0.943706989288	1.20639332136	1.04145336151	0.972353726059974	-0.188239734030901	0.138181163511027
0.893537362417	1.17925993601	0.874446392059	0.253383290590445	-0.72942039986464	-0.635407576529323
0.750670671463	1.17402664820	0.855646292369	-0.700356418134306	-0.355338668093262	0.619060028216805
0.789670626322	1.23779328664	1.06525325775	-0.622241475037056	0.30203021612736	0.722214161651355
0.855470657349	1.20172659556	1.09435335795	0.284059626462367	-0.368815270980051	0.885034137480568
0.762537320455	1.23919328054	0.987382014592	-0.983912236851113	0.178256087913704	-0.0118944229091159
0.763270696004	1.25412670771	0.917079925537	-0.993990678019686	0.0620068354515699	0.0902091146572596
0.925272703171	1.20502670606	1.06528663635	0.530168391202308	-0.220997221854943	0.818585184878369
0.83790397644	1.29375998179	1.03175338109	0.189887598978101	0.972840572565142	0.132377944256052
0.945373694102	1.20719329516	0.940913359324	0.919682929608007	-0.384681786234592	-0.0787606013625979
0.822570641836	1.27415990829	1.06921998660	-0.365277491564561	0.596614253846276	0.714579447132195
0.798637390137	1.15102672577	0.943213701248	-0.619870358069087	-0.784252102520297	-0.0266341675258429
0.852237383525	1.2764600118	1.06838663419	0.223697497085272	0.692351217466206	0.686009636572874
0.822737296422	1.14152669907	0.93278002739	-0.0269355000077787	-0.945848399026999	-0.323489234592735
0.775337378184	1.26092664401	1.01695108414	-0.876153426230536	0.330503831149399	0.350888003927268
0.806104024251	1.29855998357	0.855079650879	0.144308538691013	0.822550076912926	0.55007855496411
0.901405016581	1.28102668126	0.941246350606	0.194407894130574	0.954993643228807	-0.224037300671753
0.766837358475	1.18419337273	0.975047667821	-0.931595588192681	-0.361335588631754	-0.0395759074195023
0.907238324483	1.26592667898	1.06028668086	0.340620575831744	0.760149029596487	0.553309204806472
0.81640402476	1.28806002935	1.04535333316	-0.422803388283977	0.859444904142361	0.287387806977465
0.829570690791	1.28246005376	0.856079657873	0.70188978116129	0.563896661865986	0.435168116752313
0.842337369919	1.27149327596	0.871713002523	0.195051761225543	0.912641565427752	-0.359221635618454
0.863903999329	1.27929329872	0.908046325048	0.144916425228446	0.949533527111503	-0.278182153615572
0.786337296168	1.28602663676	0.870380004247	-0.0771429549836803	0.716111393957259	0.693709907627804
0.78390399615	1.20665995280	1.06258662542	-0.644050592471533	-0.293295376025115	0.706524349714399
0.935639301936	1.19005997976	0.92051299413	0.900596604959025	-0.412133986118819	-0.138098995731652
0.812304019928	1.24999332428	1.07702000936	-0.524802303225414	0.341293221426149	0.779808617250324
0.913904984792	1.23112662633	1.07428661982	0.527437153317342	0.137713936155037	0.838358468132329
0.873303969701	1.23926003774	0.855712970098	0.370044823499205	0.0936309443515506	-0.924283546787066
0.897871653239	1.15569337209	1.00761628151	0.358348643974002	-0.925450711178557	0.122992806867296
0.761970678965	1.2342933019	0.944146315257	-0.990569644056917	0.113959070409639	-0.076059914175098
0.745970726013	1.27222673098	0.860080003738	-0.845662094898042	0.0848327795933212	0.526933601850485
0.761370658875	1.20452674230	0.894946257273	-0.873091220509278	-0.460934033865568	0.158907322342411
0.90517171224	1.18382668495	1.06411997477	0.252524083567797	-0.510639639863215	0.821875139798382
0.769004027049	1.18789331118	0.921846628189	-0.959701482634602	-0.279047697020042	-0.0332482633645349
0.763770739237	1.19825998942	0.94947997729	-0.930515118736955	-0.345590384757353	-0.121280252989578
0.760937372843	1.29289333026	0.859346707662	-0.137034175059802	0.7261199895042	0.673773994532366
0.846837361654	1.14599339167	1.04278659821	0.200867297296877	-0.95305486916589	0.226580549111869
0.811737298965	1.15429329872	1.04062000910	-0.583407093382619	-0.776427098741176	0.238321471401977
0.910437345505	1.17285998662	0.892512957255	0.42530453830319	-0.783735241489349	-0.452631330053878
0.841804027557	1.13666009903	0.982715368271	0.18368373839648	-0.98197003808738	0.0446668618481704
0.76233736674	1.20116003354	0.993016401927	-0.963504066852016	-0.24775638484056	0.101373995335892
0.757437388102	1.23472674688	0.8955133756	-0.942495709733515	0.189319533878906	0.275426852768194
0.829437335332	1.14746006330	0.908579985301	-0.0969002905125587	-0.980496402433854	-0.170988708729119
0.74903734525	1.24562676748	0.870680014292	-0.854069510503147	0.136322425268019	0.501977556866799
0.865804036458	1.16469335556	0.88024632136	0.246820255705151	-0.731065624803443	-0.636099688417151
0.93887368838	1.25162665049	1.02295335134	0.936189463126153	0.348786622759428	0.043556640316233
0.872037331263	1.28522666295	0.935979684194	0.161174744291523	0.959948524924956	-0.229175765073367
0.793237368266	1.28152664502	0.897280057271	-0.218533608393086	0.905227500359159	-0.364425897263361
0.788370688756	1.15836000443	0.973181009293	-0.620313377919382	-0.784248608946916	-0.0128620581196415
1.13287663460	1.46122662226	0.534313003222	0.266230700352424	-0.907469043689365	-0.324994075231177
1.11941003799	1.45615990957	0.558379650116	0.0542399262109825	-0.996455814347787	0.0642949489238154
1.07110993067	1.50336011251	0.528679649035	-0.0855644985783278	0.738765666378815	-0.668508793332522
1.12367669741	1.48819319407	0.581079641978	0.177684196105433	-0.00624544757745328	0.984067741996923
1.13467661540	1.46936003367	0.57171301047	0.489368643933237	-0.526430665736083	0.695261881960754
1.09271001816	1.49549325307	0.58997964859	0.353285152352122	-0.0357627142200667	0.934831872263217
1.16897662481	1.48182662328	0.56444633007	0.212758817321734	-0.519079397105237	0.827822604881457
1.00684134165	1.47859334946	0.625879685084	0.027846488543216	-0.202809602361877	0.978822168867067
1.02897564570	1.50085989634	0.619879682859	0.374979218665558	0.225678721985371	0.899143870585802
1.18714332581	1.49972661336	0.554946303368	0.0902373189131947	0.909703370458963	0.405335668367541
0.972173690796	1.45962667465	0.553846319517	0.0539708898883047	-0.662303914100709	-0.747288878822337
0.998241345088	1.45519336065	0.554879665375	-0.201736501342495	-0.593813809221988	-0.778901498267504
1.03080892563	1.51985994975	0.602679649989	0.124735276883261	0.880891401766142	0.456586737647226
0.963307062785	1.47729333242	0.544546286265	-0.355250359086876	-0.212930565605786	-0.910196548334175
1.02510897319	1.50545994441	0.540379683177	-0.143227493007613	0.7692506040871	-0.622687235583311
1.01987568537	1.47359339396	0.536479711533	-0.142185071362056	-0.580856352077497	-0.801491923685442
0.998074690501	1.44132677714	0.585446357727	0.112670150861784	-0.969768662642713	0.216458259396461
1.18471002579	1.47319332759	0.542446335157	0.447065401411347	-0.810961387525932	0.3774574874114
1.18204339345	1.48369344076	0.51614634196	-0.021418464832075	0.372117341598166	-0.927938539692232
1.16387669245	1.46579329173	0.525646328926	-0.0847911590362804	-0.942783774962459	-0.322442573207726
1.02644236883	1.45952669779	0.614746332169	0.327274519934181	-0.533339425939902	0.780025926069093
0.977840344111	1.49982674917	0.555279652278	-0.193327159757422	0.876081956392821	-0.441706933365388
1.02304236094	1.44666004181	0.593646367391	0.149048798437761	-0.961651298008276	0.230241691974452
1.04857667287	1.48179340363	0.608746329943	0.692361558594863	-0.152822554682675	0.705181351824021
1.00664138794	1.51476001740	0.56411298116	-0.389292604753552	0.807429068572295	-0.44329399624704
1.07461007436	1.45105997721	0.577913045883	0.14800074413521	-0.96387909341995	0.221433676308188
1.00527461370	1.52115996679	0.598913033803	-0.18956409910965	0.9486093136868	0.253388678348906
1.04724327723	1.44495995839	0.570246378581	0.156645325165328	-0.961889425316379	0.224122679727809
1.07254330317	1.47502676646	0.595313032468	0.281673368487222	-0.0907242419957193	0.955211612889712
1.13411005338	1.50959332784	0.566546320915	0.444028236772613	0.814861137529124	0.372612736622549
1.10911003749	1.52096001307	0.559612989426	0.184282602633758	0.947897566823366	0.259865590598046
1.09404341380	1.45162677765	0.556579669317	0.276382898521561	-0.956482032931259	0.0935660947379282
1.10197655360	1.51319344838	0.535846312841	-0.0757568771042823	0.740524991518928	-0.667745185311956
1.15914336840	1.50145991643	0.526713013649	-0.114722882885157	0.484783862049071	-0.867077428629823
1.12284334501	1.49462668101	0.521812995275	0.18855882505081	0.520932111704505	-0.832511444059806
1.11474339167	1.47229321798	0.519912997882	-0.204722965158172	-0.602016939184472	-0.771792791150453
1.04391002655	1.45802672704	0.543646335602	-0.134340869798994	-0.583490002195045	-0.800931924722742
1.08997662862	1.46282672882	0.532379666964	-0.13535226001007	-0.583816535340104	-0.800523590391716
1.0853099823	1.51912673314	0.579946319262	0.1473936655036	0.943183105293472	0.297793111502558
1.16327667236	1.50865999858	0.547679662704	0.239130679890978	0.826201199171714	0.510105965875817
1.05304336548	1.51792669296	0.549112995466	-0.15355976155472	0.767551615492861	-0.622321393803521
1.06721003850	1.47532669703	0.527113040288	-0.13535844528738	-0.583814198931432	-0.800524248486849
1.06010993322	1.52592658997	0.576612989108	0.272890019705559	0.902015966914352	0.33451193188983
1.43694337209	1.32402666410	0.354813019435	0.377950244239526	-0.903582552336377	0.201723037832968
1.74580987295	1.36522674561	0.138346334298	0.394905783206349	-0.753895392660802	0.525063005090813
1.40841007233	1.31195998192	0.355412999789	0.395424543927964	-0.895476527817251	0.204355616971305
1.61850992839	1.35352659225	0.146246333917	-0.11520455049572	-0.946792733148735	-0.300518605084323
1.43134339650	1.39402675629	0.388779640198	0.584635199638841	0.601666647600251	0.544241608579065
1.57101011276	1.41272672017	0.195446332296	-0.0442782008467744	0.977370529070613	-0.206848470707429
1.65327660243	1.40019321442	0.186846335729	0.395671561887257	0.832092772443482	0.388671626390476
1.61611000697	1.40329329173	0.21517966191	0.47571543150072	0.758184643878406	0.445926982833578
1.59150997798	1.35589345296	0.255179683367	0.543535803195395	-0.587774851896942	0.599240814800081
1.64664332072	1.37029329936	0.216012994448	0.546935852169947	-0.545433101224416	0.635109365148909
1.65871000290	1.34949334462	0.156279673179	0.105435949147975	-0.994386956528921	-0.00882277237698848
1.68590990702	1.37269337972	0.186713000139	0.449717716628956	-0.600238866734184	0.661413091956684
1.44867674510	1.34229342143	0.376013000806	0.619497922580726	-0.544257005149051	0.565691290603232
1.60727659861	1.39216009776	0.241213003794	0.439526608577687	0.742047318166891	0.506144384492726
1.66034332911	1.36052656174	0.195579667886	0.552788970360802	-0.550137804871165	0.625917526435376
1.43207661311	1.35019334157	0.403812964757	0.638962948240117	-0.589195737631512	0.494544976249033
1.64797671636	1.34842665990	0.180712997913	0.0991434605801898	-0.994996775563163	0.0123284566387208
1.62057654063	1.34475994110	0.186679661274	0.166089676098757	-0.986100457049599	0.00448420561321318
1.61034329732	1.34419329961	0.210879663626	0.145921911283289	-0.985844028871905	0.0825732798491267
1.62404330571	1.35762659709	0.225346326828	0.575505168897624	-0.529839181536941	0.622948025344316
1.61194324493	1.36762666702	0.246446331342	0.606662319297749	-0.555531206989667	0.568635127656462
1.48147662481	1.32962671916	0.315046310425	0.263257626172853	-0.915934685319654	0.30291760346705
1.49487654368	1.34882672628	0.335813005765	0.534389769656853	-0.517664410756436	0.668169987295365
1.44851001104	1.32929333051	0.264079670111	-0.436924128966479	-0.842483952982224	-0.315147734395044
1.51534334819	1.36136007309	0.32831299305	0.572344998927938	-0.496022611597335	0.652979916219739
1.51674334208	1.33282661438	0.286746342977	0.279460005362579	-0.93120805987937	0.233994988447288
1.40757656097	1.36219342550	0.291013002396	-0.72307031244477	0.0252436888184764	-0.690313030034822
1.52877664566	1.35119326909	0.309013009071	0.566379434537773	-0.492894516956489	0.660506874519034
1.43724346161	1.32185999552	0.293812990189	-0.392175946036735	-0.817933592321548	-0.420930713897382
1.48990996679	1.32379341125	0.285279671351	0.317052188357423	-0.921407988115612	0.224689183750599
1.43061002096	1.37519327799	0.261913001537	-0.833219931435184	-0.00675720436660385	-0.552900430501094
1.44581000010	1.35059324900	0.244479656219	-0.734300698897539	-0.201672763959421	-0.648174806572697
1.41151014964	1.33015998205	0.303312997023	-0.434397165028079	-0.80275844825528	-0.408507009450685
1.49390999476	1.40689325333	0.327146331469	0.483818937358829	0.526437997082764	0.699129652554132
1.51154343287	1.32909329732	0.231246332328	-0.0869579968811912	-0.898639386337983	-0.42998320909136
1.61864328384	1.37302668889	0.137479672829	-0.636841004871098	0.254053056703672	-0.727935834324902
1.51547670364	1.42622661591	0.276612997055	0.117956105582553	0.992812974739544	0.0202176740654155
1.57284339269	1.39252662659	0.274146338304	0.476787993634935	0.659817865384485	0.580787046726281
1.57700999578	1.33759339650	0.218879659971	0.250614838820128	-0.966482094243643	0.0557186151082691
1.48754326502	1.42632675171	0.301813006401	0.0153851076442957	0.992145513887792	0.124139348053318
1.54317665100	1.40869331360	0.28487966458	0.596288315752096	0.629305296881671	0.498412567873444
1.51077667872	1.42266003291	0.249779681365	0.0592011110676878	0.96497744929188	-0.255565550899352
1.66147677104	1.39099327723	0.102046598991	-0.691325045855125	0.245172468427504	-0.679676497827146
1.47731002172	1.38725996017	0.355513016383	0.537323885287282	0.547258870445215	0.641709257389051
1.45327663422	1.41922664642	0.265079657237	-0.319745001180581	0.941263350227461	-0.108565370807672
1.61480998993	1.40809329351	0.165546337763	-0.0193884553317199	0.993595080679846	-0.111323418240099
1.58000993729	1.40619341532	0.248446345329	0.546144530741096	0.707717415319223	0.448176540657212
1.55920998255	1.33839337031	0.201113005479	-0.0551582037973679	-0.916959468798506	-0.395149218820701
1.64104334513	1.40759325027	0.163213004669	0.0493010160752615	0.993315568929627	-0.104372363851541
1.45527664820	1.42046006521	0.296679655711	-0.295502991783072	0.954494673096437	0.040223138586887
1.52617677053	1.32949336370	0.257613023122	0.32441644741767	-0.929229198079091	0.176881502939644
1.52814340591	1.33845996857	0.207046329975	-0.102754066338073	-0.909303388840875	-0.403247999243011
1.60354328156	1.38922659556	0.153213004271	-0.560525156215227	0.167868818358777	-0.810944886581526
1.64214324951	1.37535985311	0.116079727809	-0.69160357553108	0.24480757152618	-0.679524647997466
1.5301100413	1.41646003723	0.22464632988	-0.00373463747463035	0.985119764345409	-0.171828700684661
1.44354343414	1.40189329783	0.250046332677	-0.703316357908529	0.317717375499734	-0.635925915499473
1.57027657827	1.33929332097	0.242079655329	0.224498454956241	-0.941844628177684	0.250058273398625
1.43734327952	1.41729323069	0.32657968998	-0.145200752670897	0.981101368088887	-0.127893889447151
1.39230998357	1.38249333700	0.307712992032	-0.722126485913632	0.024403532225703	-0.691330460747202
1.40714327494	1.40966002146	0.323546330134	-0.311599522907186	0.945796088763072	-0.0915177349178238
1.55054330826	1.33809328079	0.260312994321	0.290281173801124	-0.939456605821156	0.18209372838084
1.66097672780	1.40602668126	0.127046535412	-0.0350751019447243	0.999301268876563	-0.0129116708933862
1.56007671356	1.41749334335	0.22457965215	-0.0679233999262827	0.984560739784052	-0.161327497403064
1.69474331538	1.40619341532	0.118513206641	0.0138541578717634	0.9999025604861	0.00171226253969503
1.51634343465	1.39079332352	0.323012987773	0.521574832530594	0.507840069118384	0.685607875004742
1.47927665710	1.35862668355	0.358879645665	0.599160745599085	-0.560217331036321	0.571981593182586
1.53137667974	1.37902673086	0.192212998867	-0.229948417992077	0.18979505914628	-0.95451640142357
1.53767665227	1.39269336065	0.305946310361	0.499036475035269	0.505424048888727	0.703924092064833
1.74017667770	1.39125998815	0.144646326701	0.200431242082491	0.914384489742095	0.351750369035143
1.6957432429	1.35285997391	0.124279737473	0.0768488877025559	-0.997037884319288	0.00311539580109689
1.48604329427	1.33139324188	0.232512990634	-0.117811262512309	-0.895746733972534	-0.428670380365608
1.69947671890	1.36305999756	0.167346338431	0.484949477704835	-0.636963505600617	0.599250779396056
1.70364332199	1.39879337947	0.15074634552	0.283580841480322	0.885722981057036	0.367527831834202
1.72417656581	1.35512669881	0.120746403933	0.0824207205204836	-0.996593616816595	0.00282626065719833
1.47384325663	1.32275994619	0.257412989934	-0.172619000135492	-0.920080715733509	-0.351644930757628
1.51721000671	1.35522667567	0.197013000647	-0.469852338452632	-0.204020030067278	-0.858844926271292
1.68464342753	1.35196002324	0.15177967151	0.0808780368739989	-0.996704520087444	-0.00623239830772086
1.48547665278	1.39059336980	0.214913010597	-0.450157311151496	0.377986614023364	-0.809002172330834
1.48574336370	1.36549329758	0.211946328481	-0.476199322126192	-0.202074879731263	-0.855803685776213
1.51454337438	1.40172672272	0.20481300354	-0.407802425594056	0.393833415731999	-0.823767213679005
1.56021006902	1.35466003418	0.28294634819	0.620229001318348	-0.515491929684601	0.591256337263028
1.47117678324	1.35102653503	0.223246335983	-0.467571213100353	-0.188669120785509	-0.863586199253953
1.48084338506	1.42152674993	0.2433796525	-0.0589870928683819	0.956275485418055	-0.286457185044117
1.73221000036	1.37405999502	0.157446334759	0.361611651349116	-0.669544763938002	0.648804148177068
1.54787667592	1.36442661285	0.302513003349	0.566246419060962	-0.492976592100172	0.660559666148288
1.68037668864	1.35532665253	0.104146460692	-0.154059893477321	-0.963257656659965	-0.220000536607777
1.45301008224	1.40352662404	0.360079685847	0.460143912143495	0.581613089234443	0.67081576796349
1.47111002604	1.40419340134	0.228346327941	-0.414747316579775	0.328915477602226	-0.848409849060921
1.55787674586	1.38899342219	0.182913005352	-0.50172404615957	0.136650775193408	-0.85416599507608
1.45414336522	1.32115999858	0.31691300869	0.336885570992941	-0.898329659008932	0.281978608766083
1.39987675349	1.31739330292	0.327012995879	-0.260088823800204	-0.6228818656538	-0.737815685096127
1.57537666957	1.36995999018	0.168413003286	-0.55010300392189	0.171840628232526	-0.81722547902324
1.65434328715	1.35726006826	0.114446401596	-0.162863197110475	-0.962121775207544	-0.218625864660241
1.39901002248	1.41349347432	0.358579675357	-0.199803867214613	0.946993684760465	-0.251557897252069
1.60604317983	1.34702666601	0.169413010279	-0.102184086492732	-0.934009861423763	-0.34232147351694
1.57800992330	1.34725999832	0.175846338272	-0.0721099737405912	-0.936920353040511	-0.342023981243386
1.68210999171	1.39122660955	0.182913005352	0.257679651139157	0.865837095769882	0.428867486500875
1.64337666829	1.39142656326	0.211079676946	0.333857069211922	0.803567590549852	0.492766257727871
1.40754334132	1.41162665685	0.390312989553	0.371598418374498	0.76822682358524	0.521288943855233
1.42937676112	1.37396001816	0.410679658254	0.590376151302278	0.507462145835637	0.627644939848479
1.59977674484	1.41255998611	0.193279663722	0.0263061402968628	0.97686431982291	-0.212235924479351
1.57967662811	1.36675993601	0.275646328926	0.521939909000922	-0.573668141275508	0.631255570333928
1.64377657572	1.35232671102	0.139079660177	-0.143519952223611	-0.943945472257816	-0.297269185617515
1.73917675018	1.3556599617	0.0903132955233	0.0650221025464631	-0.997364803700433	0.0321803436904082
1.66560999552	1.36885992686	0.0590801636378	-0.990024950867908	-0.11827089298249	-0.0765675684093552
1.86900997162	1.37409337362	0.0956133008003	0.41021380066249	-0.453599034533843	-0.791184272856836
1.67944335938	1.37032667796	0.0402136345704	-0.309858166520515	-0.0834083285939869	-0.947117187765961
1.76414330800	1.37882661819	0.0507803360621	0.263359547113649	-0.367378055560574	-0.892006229370976
1.88617674510	1.39699331919	0.0990798970064	0.708553421761987	-0.0746516931225926	-0.701697351586358
1.73447672526	1.37062660853	0.0431136339903	0.386522782165438	-0.309487334028834	-0.868802468310729
1.86427672704	1.37296009064	0.10814639926	0.0314569148396044	-0.450037462271299	0.892455458306566
1.86900997162	1.42059342066	0.092513302962	0.459654235663696	0.38582093244253	-0.79991261505592
1.70897674561	1.41405995687	0.0623135964076	-0.48849831592919	0.845847171549246	-0.214270757959379
1.84957663218	1.38609329859	0.0818135042985	0.253460596546216	-0.403853622044764	-0.879010795132666
1.72734324137	1.4087266922	0.0484135995309	0.100313555245397	0.495641492347422	-0.862714727878022
1.80911000570	1.43609333038	0.0930132667224	-0.196117489190721	0.91307562676007	0.357534376319583
1.77174329758	1.35495996475	0.0859467983246	-0.0953488301564437	-0.994966350419249	0.030831187476269
1.76814333598	1.40479326248	0.123913009961	-0.257070854616876	0.666954613970645	0.699346922928683
1.88144334157	1.39586003621	0.111612995466	0.288199649387314	-0.027577997216878	0.957173138028087
1.69390996297	1.35739326477	0.0566134999196	0.264897145520315	-0.943779838913823	-0.197760253729072
1.82020998001	1.36199331284	0.100579967101	-0.286536138784858	-0.762395209847253	0.580215981486402
1.79000997543	1.36455996831	0.10841323932	0.336791528611475	-0.781238691227392	0.525583079621917
1.82817665736	1.37052663167	0.0809801717599	0.362878884297747	-0.370713516214656	-0.854921285398012
1.82104333242	1.40135987600	0.120146334171	0.0643294393136515	0.242842730248505	0.967930334064928
1.71924336751	1.41386000315	0.0844467381636	-0.246410463286219	0.875650199013995	0.415353599418402
1.79344336192	1.39772669474	0.128746330738	0.442102488412106	0.326618091812006	0.835383751243049
1.77317667007	1.41955995560	0.0638802995284	0.168092113825091	0.39903511694772	-0.901396703295687
1.81127675374	1.38402668635	0.066913664341	0.43016791395634	-0.394356939406217	-0.81205798447193
1.75777657827	1.40346002579	0.0520136356354	0.243655808682536	0.500523848468552	-0.830727225995086
1.80577675502	1.41306002935	0.0655136356751	0.0677336520006647	0.392906816191599	-0.917080359716003
1.84804328283	1.41772667567	0.0787468353907	0.478618413678369	0.395334660973411	-0.783986555956822
1.75300995509	1.42462666829	0.0824134002129	-0.260381010436205	0.87257707778329	0.413292841374486
1.77357673645	1.42302672068	0.10054653883	-0.29444059536981	0.881460100470595	0.369232754609664
1.67184336980	1.38675991694	0.0710801283518	-0.817334022553512	0.473797786807672	0.32784257318513
1.82114330928	1.43119335175	0.0765134692192	0.149255679439344	0.502025303313133	-0.851876362501306
1.68490997950	1.40169334412	0.0562802652518	-0.324240390164875	0.935068728786987	-0.143229332995787
1.78504339854	1.36589336395	0.0640470335881	0.328777899362253	-0.437185305788952	-0.837122512714337
1.77907673518	1.37536001205	0.130379656951	0.318447594269251	-0.751877409024942	0.577296710108473
1.83687671026	1.37642669678	0.113946398099	0.215357431311595	-0.471301194932952	0.855275604956463
1.72281010946	1.35839335124	0.0607468336821	-0.10017741996621	-0.97587813945973	-0.1939751052417
1.69104337692	1.38819328944	0.0398469318946	-0.0776979745309262	0.284156094234344	-0.95562458050391
1.71717659632	1.38749329249	0.038613597552	0.00506280603669551	0.289346818153399	-0.957210941652643
1.86427656809	1.41945997874	0.105046401421	-0.0542169340667009	0.521105147474864	0.851768718218512
1.83127657572	1.42149337133	0.107779731353	0.244932947486973	0.565980641914234	0.787193600211343
1.68007659912	1.35592651367	0.075480033954	-0.190324310215388	-0.965648956981117	0.176914524057007
1.29904333750	1.49862670898	0.50441300869	0.849795314766376	0.246183938146579	-0.466091612882871
1.29931004842	1.47802670797	0.56691300869	0.260913116101422	-0.345556392614512	0.901396208872376
1.31284332275	1.47702662150	0.518246332804	0.851153599292153	0.244670703644438	-0.464406930600901
1.26094333331	1.50182660421	0.499179681142	-0.385042341851487	0.0874115243510827	-0.918750031505927
1.28174336751	1.48046000799	0.491646329562	-0.206061707472262	-0.00653598654644456	-0.978517170821995
1.26564335823	1.46015993754	0.53534634908	-0.101497531888828	-0.991968671060437	-0.0754745430928019
1.24240994453	1.50199333827	0.549779653549	-0.0242748450961113	0.890801501907653	0.453743778023049
1.31941000621	1.48742659887	0.543979684512	0.960221408516714	0.257102308287754	-0.108964442362112
1.27361003558	1.46872663498	0.561879674594	-0.223324380349859	-0.491893805987276	0.841526413591816
1.23347663879	1.48459339142	0.505413015683	-0.209087415221977	0.155680401610701	-0.965425328728288
1.21397670110	1.50032679240	0.515413006147	-0.438339789617478	0.30679475231721	-0.844828508508517
1.28477668762	1.45906003316	0.514646331469	-0.144816946276761	-0.988196121085722	-0.0499647710112421
1.27824338277	1.51999330521	0.51194636027	0.0529827238241572	0.99859233354149	-0.00248643687510369
1.30764325460	1.45602671305	0.526446342468	-0.0537198512865026	-0.99770057503067	-0.0413248129000876
1.31421001752	1.46642669042	0.552179694176	0.543575229162863	-0.5310098415993	0.650041935851239
1.27714331945	1.50999339422	0.540512998899	-0.13217808193965	0.852865862810416	0.505122534349241
1.30450995763	1.49902661641	0.558713038762	0.19739790191447	0.736269401569162	0.647256855222679
1.24407664935	1.48172664642	0.56294631958	-0.179948409109077	-0.534930275815917	0.825510854001702
1.21494325002	1.50916004181	0.533246318499	-0.071623337983338	0.900515733735506	0.42888402948924
1.21770993869	1.47449334462	0.540612975756	-0.51585894501646	-0.756211390633124	0.402534323410094
1.23514326413	1.46432669957	0.518579681714	-0.0884473109985498	-0.993467934125686	-0.0721008810013243
0.773337364197	1.45532671611	0.717779636383	-0.500133516610971	0.865167392099977	0.0367675020809055
0.761703968048	1.44316005707	0.775379657745	-0.624022236748326	0.764921509875354	0.159660050650202
0.780903975169	1.45912663142	0.750013033549	-0.513784881202034	0.857896784688484	0.00618083079963556
0.792537371318	1.45469331741	0.691312948863	0.00479741618818188	0.879514210777453	-0.475848439987388
0.768570661545	1.43612670898	0.802646319071	-0.506964628439738	0.676294748665482	0.534427056237286
0.976040363312	1.45936012268	0.642846306165	0.676880018377838	-0.212911127857089	0.704629187839561
0.97897362709	1.43942674001	0.613846302032	0.462010868062155	-0.885899022099129	0.0415798080353991
0.864670674006	1.44862667720	0.786846319834	0.641903088189242	0.119753842767979	0.757376684692245
0.829037348429	1.43402671814	0.817479689916	0.360498236293358	0.36082886395924	0.860141588672041
0.862670660019	1.47645998001	0.652546326319	-0.538672190405638	0.820241400510678	-0.192448216858129
0.883870681127	1.48919328054	0.648546377818	-0.526020443609367	0.827875342873025	-0.194743188758621
0.896470705668	1.46555995941	0.599813024203	-0.694174644111912	-0.0456529295146287	-0.718357413478021
0.968173662821	1.50529336929	0.633146325747	-0.160986494263294	0.941298124027396	0.296717357711541
0.934539318085	1.49522670110	0.579146345456	-0.398249202662193	0.850089875504029	-0.344593639152659
0.939572652181	1.50266011556	0.635313034058	0.00120429720235792	0.97214569363706	0.234374273356034
0.893470684687	1.43739334742	0.609146316846	-0.778252590687214	-0.233246535465263	-0.583025693072005
0.876604000727	1.42909336090	0.622079650561	-0.341566395851658	-0.011305624543957	-0.939789646718126
0.924204985301	1.42326005300	0.616946299871	0.587165892289964	-0.546503696049273	-0.597134762960435
0.920171658198	1.49932670593	0.609946330388	-0.444371595761061	0.854360829062885	-0.2694465784599
0.896104017893	1.48779328664	0.616079727809	-0.495092071199302	0.827670363243463	-0.264283201970951
0.857503970464	1.44969336192	0.634613037109	-0.722074995158109	0.0918346695065452	-0.685692419998968
0.935872713725	1.49336004257	0.666846354802	-0.0338091258954335	0.945887046116354	0.322729978457945
0.878604014715	1.48109324773	0.740913391113	0.437999794866507	0.879548147214751	0.185879628867706
0.849637349447	1.47702662150	0.673946301142	-0.325779771589577	0.849371615321175	-0.415253416012129
0.934239308039	1.47589333852	0.563646316528	-0.686333939570818	-0.0879797875312753	-0.721945482968869
0.985807021459	1.48492670059	0.638146360715	0.775017354750328	-0.0849145857494679	0.626208921177908
0.811004002889	1.47392670314	0.754012982051	-0.370185320002653	0.928796381846163	0.0173236810179116
0.86013730367	1.48562669754	0.748579661051	0.1905760110583	0.928312720217365	0.319243288875025
0.887705008189	1.48952658971	0.700812975566	0.161737462629524	0.983495749531723	-0.0810993454671354
0.881470680237	1.43809334437	0.770112991333	0.793524611173422	0.036704178494482	0.607430238581448
0.832470734914	1.48389339447	0.731312990189	-0.408928458168943	0.909699616870657	0.0722780960246625
0.89607167244	1.48369328181	0.717546621958	0.289164528800929	0.807626434553675	0.513929389598858
0.854303995768	1.48786004384	0.696813027064	-0.327865720878591	0.903369581349759	-0.276455183645963
0.907004038493	1.43779325485	0.73141336441	0.812274610047107	0.174767059679097	0.556476803401493
0.919038375219	1.45745992661	0.714113394419	0.692977703905911	0.0447377813724367	0.719569616372985
0.89157072703	1.45675992966	0.751480023066	0.890315259639191	0.128119382206885	0.436948695336795
0.804737329483	1.42282660802	0.82557964325	0.00339319161444558	0.180500780689758	0.983568988135075
0.828637282054	1.46029329300	0.667879660924	-0.627640469012792	0.646939019046709	-0.433055824683475
0.8289706707	1.48072655996	0.70844634374	-0.392330921966301	0.893135830134017	-0.219965535027407
0.792303959529	1.44275999069	0.812046368917	-0.300302086546513	0.689748402956047	0.658836700127879
0.837070703506	1.43799336751	0.648412982623	-0.493936166028608	0.216515054770365	-0.84210943169326
0.931139310201	1.43942658106	0.693146387736	0.977897777476353	-0.0616731519936783	0.199780777678867
0.904238382975	1.49142662684	0.673946301142	0.0544422270907545	0.955823857243152	0.288854284777329
0.813170671463	1.46212657293	0.690112988154	-0.574008562654793	0.652663051109996	-0.494515026783584
0.920238335927	1.45776001612	0.578179677327	-0.664980090794957	-0.0490860511977805	-0.745246293801009
0.960040330887	1.50632667542	0.580846349398	-0.314802799061171	0.883494111488973	-0.346896746406712
0.949539343516	1.43482669195	0.603979667028	0.00969342423907545	-0.998861292536801	-0.0467135504777049
0.974273681641	1.51306009293	0.609479705493	-0.133019257210055	0.959805505101002	0.247142205195905
0.942572673162	1.44116004308	0.574546337128	-0.110404294321127	-0.823889745474108	-0.555892596728957
0.943540334702	1.44462664922	0.672246297201	0.682359779313557	-0.289584776877006	0.671212178507101
0.816603978475	1.45396010081	0.80394633611	0.0248601425222418	0.812788579761968	0.582028090320645
0.856304009755	1.47182671229	0.775879621506	0.0638980531036712	0.819242983360789	0.569875401314775
0.827303965886	1.46912670135	0.781946341197	0.0287956461950898	0.819420730278786	0.57246875683271
0.848104000092	1.42599328359	0.806446313858	0.69143197533554	0.166718377543786	0.702941538161433
0.932972669601	1.41786003113	0.643579641978	0.441406612746403	-0.897269467115481	0.00822834163410966
0.954706986745	1.47042671839	0.669379711151	0.751369537887376	-0.200232455667955	0.628769259134137
1.07990996043	1.25122658412	0.292279660702	0.64883543005886	-0.650093715215084	-0.395462698794946
1.22067658106	1.33912658691	0.260913014412	0.147342491740551	0.0412846123249366	-0.988223542986538
1.26031001409	1.36979325612	0.282312989235	0.516671252366725	0.381580894172253	-0.766450806105978
1.25390990575	1.34469334284	0.27094634374	0.379415559419812	0.0720360376969584	-0.922417824276544
1.20531002680	1.35882663727	0.260679682096	0.0772469021437473	0.0919336435386526	-0.992764383574926
1.21020992597	1.38949330648	0.273046334585	0.313467077882623	0.70167525050203	-0.639836099260306
1.23197666804	1.39489332835	0.284646352132	0.124417278933268	0.658274828483187	-0.742424804871357
1.28737664223	1.39242680868	0.410646319389	-0.276480252612214	0.654791787368194	0.703424754405652
1.26450999578	1.32122659683	0.284412999948	0.332758646942386	-0.672332706368131	-0.661241570708298
1.06860995293	1.38902664185	0.235179662704	0.124652221077427	0.593108003974336	-0.795414809644655
1.31337666512	1.41099325816	0.397479653358	-0.015891369449961	0.797368343360992	0.603283672398609
1.28901004791	1.41449340185	0.348013003667	0.345128232274803	0.931948273083717	-0.111170677712907
1.10940996806	1.33562660217	0.228146334489	0.512388489720351	-0.0929243429869504	-0.853711369306126
1.18180990219	1.35455989838	0.253246347109	0.503253906308132	0.0869709180054346	-0.859750873920404
1.07817665736	1.41726001104	0.294079661369	-0.0650143713705968	0.963450028698392	-0.259879152138747
1.21534331640	1.31305996577	0.270979682604	0.295175847874484	-0.725106178597868	-0.622167379883241
1.16317669551	1.30532662074	0.263246337573	0.14438290979144	-0.770154604790666	-0.621301424495301
1.13727664948	1.41976006826	0.305479685465	0.0190741173453014	0.938239470518743	-0.345460379795145
1.23894325892	1.30782667796	0.28714632988	0.255173080216184	-0.720383174124458	-0.644930059441608
1.10457666715	1.29619328181	0.257646342119	0.244549042675253	-0.781335419561004	-0.574204430378281
1.12037666639	1.39179325104	0.247646331787	0.161137325592044	0.548715776240721	-0.820332712504863
1.06171003977	1.40742667516	0.266912996769	-0.137839771724119	0.938600145884969	-0.316275138883471
1.13687666257	1.34619331360	0.238446334998	0.234723506646467	-0.215658450736219	-0.947837701325306
1.09810996056	1.31419332822	0.232413013776	0.234548767313186	-0.730283589721894	-0.641617295850704
1.18401002884	1.40009323756	0.272346337636	0.292510314996415	0.713328230407487	-0.63686776596435
1.16860993703	1.38339328766	0.255246361097	0.184038927225584	0.433064433676231	-0.882374563068509
1.11520997683	1.41192658742	0.277713020643	0.0987257751191254	0.955121918717362	-0.279276461078969
1.14351002375	1.37575991948	0.244146347046	0.299614611754295	0.438238347950252	-0.847453972088843
1.26127664248	1.40109348297	0.398512999217	-0.0348130642059877	0.60747660525058	0.793574334661739
1.16237656275	1.33009330432	0.247379660606	0.186832470072168	-0.186425620984956	-0.964540883512517
1.09024333954	1.37872664134	0.232279658318	0.190263777107735	0.558563964765269	-0.80734502685432
1.17284329732	1.41419331233	0.296712994576	0.1053634678224	0.931307291492235	-0.34866211216855
1.31424331665	1.41276009878	0.362946311633	0.0343385154631011	0.968630590781274	-0.246121199734012
1.13167659442	1.29072666168	0.273446341356	0.159775516416168	-0.762672732892983	-0.626739249493356
1.19067668915	1.29822659492	0.279712994893	0.189437323464754	-0.78211121469577	-0.593645978951781
1.29407660166	1.28772664070	0.366479635239	-0.206851505670792	-0.920258857527048	0.332168766961524
1.29014333089	1.33949343363	0.421413024267	-0.205622569059988	-0.496906830433383	0.843091312351052
1.24881005287	1.28782669703	0.356346329053	-0.00815855538232762	-0.943010793440008	0.332662113006155
1.13004334768	1.42609326045	0.342179656029	-0.118962071737099	0.984472680101206	0.129079694849211
1.26204331716	1.42139339447	0.370412985484	0.026714644748702	0.996306200774304	0.0816105511231453
1.18477662404	1.42665990194	0.351079662641	0.0411529965683914	0.985847321407501	0.162516121499058
1.15734338760	1.42502657572	0.361679673195	-0.0224736219296208	0.97986594632775	0.198387659758835
1.19304331144	1.42215998967	0.322812994321	0.0828147372692248	0.924716947195001	-0.371537732755891
1.15067672729	1.31886005402	0.403879642487	-0.117313572218321	-0.314365666321108	0.942025346586737
1.25957671801	1.28742663066	0.325413008531	0.181903155814862	-0.839287040310433	-0.5123558391114
1.14864333471	1.28802665075	0.38834631443	-0.0843324795675111	-0.657125081357654	0.749049170843071
1.17204332352	1.27856000264	0.369246323903	0.305644672025313	-0.835191465488993	0.4572051513674
1.30884329478	1.29302668571	0.385979652405	-0.101712546600258	-0.894144866900399	0.436072832058773
1.28527665138	1.29612668355	0.322812994321	0.261485658566463	-0.80827066467033	-0.527564008436366
1.29011003176	1.31329329809	0.304546336333	0.308222306201762	-0.662589454864273	-0.682623046975659
1.20114334424	1.28949340185	0.377746303876	0.102418282055936	-0.894463404965288	0.435253618800135
1.30487664541	1.28895998001	0.341946323713	0.227817832482936	-0.788163643069451	-0.571749164359921
1.17744334539	1.34086004893	0.414413015048	-0.110138684068632	-0.311691689618972	0.943778449051524
1.31707668304	1.35705995560	0.302846332391	0.371439860921265	0.253679296664061	-0.893128906800591
1.15467667580	1.40225998561	0.389279643695	-0.0909911240386388	0.58867658585887	0.803231282139665
1.25800991058	1.32216008504	0.4073463281	-0.00626051263788608	-0.452429168255465	0.891778365791175
1.20451005300	1.32096004486	0.407379666964	0.0881108963517793	-0.381435072145003	0.920186804774891
1.28847662608	1.37942663829	0.299279650052	0.29027397950212	0.290599684532561	-0.911752620053038
1.20731004079	1.40205987295	0.394812981288	-0.0509361955492324	0.606438663470765	0.793497102345536
1.31647666295	1.32529338201	0.305712997913	0.345517063941915	-0.639356182573496	-0.686907293839573
1.31060997645	1.31792672475	0.411846319834	-0.0943364897104942	-0.570860825785785	0.815609308610608
1.21054331462	1.42359336217	0.366612990697	0.0112588398323914	0.99031628598686	0.138372295763355
1.17887671789	1.38235998154	0.406879663467	-0.102774284463317	0.592297518896606	0.799137720022011
1.26371002197	1.29529341062	0.378279685974	-0.0160987908211363	-0.944960158052412	0.32678911950623
1.33331004779	1.38059329987	0.426112969716	-0.0144479995569596	0.451938721558593	0.891931974572493
1.11574339867	1.26425997416	0.356213013331	0.0153523483017241	-0.953763941104901	0.300164371719345
1.23884336154	1.29119332631	0.309879680475	0.238604297442903	-0.851408332428955	-0.467088686131793
1.35490989685	1.36229340235	0.426079670588	0.406371234972382	0.113852863362765	0.906586975910817
1.34394327799	1.40619341532	0.342579682668	0.0513197629697108	0.966662849339757	-0.250856966487031
1.36277675629	1.41022666295	0.399612983068	-0.042310643233283	0.763203505125794	0.644771447284143
1.34824339549	1.31429338455	0.325579663118	0.204530966598586	-0.56865623924098	-0.796741592534589
1.34147659938	1.29512667656	0.343546311061	0.119882531565343	-0.814795979180596	-0.567217498792675
1.27870996793	1.40942668915	0.318512996038	0.176088297528807	0.90049835104756	-0.397612413329906
1.34520991643	1.37912670771	0.315712988377	0.157615163969866	0.173243743690938	-0.972185201162155
1.13441006343	1.26212668419	0.344646334648	0.10964885233557	-0.96745553342099	0.228050257694659
1.11917670568	1.26329326630	0.316246330738	0.153185213939784	-0.902271891685489	-0.403038116937483
1.37984339396	1.37556012472	0.419546326001	0.0221335874370787	-0.0358063082155045	0.999113613459021
1.10670995712	1.42232672373	0.351312994957	-0.0999007801233199	0.987953267541544	0.118187035180423
1.08591000239	1.35212675730	0.218479673068	0.230907708256837	0.227692618480279	-0.945958615245493
1.16247669856	1.26629336675	0.346746325493	0.140766363236615	-0.962583715261197	0.231554360993456
1.06237665812	1.41945997874	0.326979676882	-0.125107613262242	0.980354362930837	0.152490682293373
1.13714329402	1.27286005020	0.302812993526	0.17318731281049	-0.889901748217973	-0.421996484819574
1.16904338201	1.27125994364	0.319279650847	0.17321122904524	-0.889900940621826	-0.421988371893144
1.33704328537	1.40192667643	0.409146348635	0.0199840575551584	0.782701350288057	0.622076549711436
1.38397661845	1.40216000875	0.410046339035	-0.0191294410257591	0.752032632930186	0.658848224930548
1.30067666372	1.37072658539	0.428546349208	-0.100495641635354	0.426077865784756	0.899087469771772
1.22597662608	1.41346009572	0.310046315193	0.117473140745003	0.919850316408964	-0.374266558225328
1.07770999273	1.41936000188	0.34427968661	-0.154195418388242	0.982802336938529	0.101603835834292
1.12041012446	1.27789330482	0.377412994703	-0.0361163356954821	-0.637495269582272	0.769607296974345
1.10104338328	1.32012661298	0.39437965552	-0.18973994900727	-0.234731723289161	0.953362349703626
1.23737668991	1.42399326960	0.355246345202	0.066475796973631	0.991694126699028	0.110107799393927
1.36277659734	1.31292668978	0.387679656347	0.420295422851379	-0.772989167732361	0.475225740147366
1.12494341532	1.34065993627	0.405446330706	-0.257866290725619	-0.254064543070289	0.932178193298843
1.4014433225	1.36496003469	0.421712994576	-0.22279376614439	0.0739552505497126	0.972056355713663
1.08127657572	1.38245995839	0.384746313095	-0.297614519083157	0.530433922420555	0.793766623118185
1.0780433019	1.34292666117	0.392146348953	-0.372733114419338	-0.155992520979518	0.91473294398623
1.34274323781	1.33085997899	0.418946345647	0.167486255045338	-0.581876466563227	0.795844288809552
1.40414333344	1.34119335810	0.414846340815	0.126776384753312	-0.620270484347111	0.774075109092574
1.12751007080	1.38255993525	0.398379643758	-0.20389377555662	0.555877504337649	0.805870664846794
1.23201004664	1.34255997340	0.416579643885	-0.0506632708300114	-0.434457471184863	0.899266333585584
1.06237665812	1.39919344584	0.366679668427	-0.287779730337313	0.526956639266365	0.799687143287974
1.37174336116	1.32562669118	0.32241298755	0.140557874667122	-0.621043207291014	-0.771069918066288
1.23337666194	1.38216002782	0.411546309789	-0.0448082244901889	0.604505125558866	0.795340038091316
1.36811002096	1.35869328181	0.315412998199	0.131485559420836	0.187832514452243	-0.973360413299379
1.24454323451	1.41836007436	0.326946338018	0.0963247049336134	0.91462212507048	-0.392667696087941
1.10684331258	1.40155998866	0.37991297245	-0.210743219632132	0.557695570587359	0.802846776120028
1.22080993652	1.28322664897	0.354713002841	0.260910172826182	-0.902305764189486	0.343176615791694
1.39221000671	1.32122667631	0.387646357218	-0.203416642495233	-0.870275029992551	0.448601205668722
1.36881001790	1.41272672017	0.367579698563	-0.0233899901277649	0.956070531930909	-0.292202064221272
1.34407663345	1.29272667567	0.368812998136	0.368112331649641	-0.835205998018117	0.408563645179092
1.09854332606	1.28819330533	0.381879687309	-0.191803766369702	-0.527737138217877	0.827468928813646
1.19107675552	1.28202668826	0.306379675865	0.191180240104314	-0.881917322157024	-0.430896684453525
1.21564340591	1.28022670746	0.320379654566	0.172626737960837	-0.881174651689918	-0.44014911400587
1.09104339282	1.25052658717	0.353246370951	0.730323349446675	-0.501486581021957	0.463830803534971
1.08124335607	1.27439324061	0.265446325143	0.646181538897232	-0.522644645313366	-0.556140264244256
1.08594330152	1.23849336306	0.338179667791	0.602459409919666	-0.795272989293456	0.0677017865310674
1.09541002909	1.25339333216	0.312746345997	0.613437295825524	-0.662638770648515	-0.4296563088373
0.867070674896	1.38792673747	0.303046345711	-0.186765352105144	0.973318325376633	-0.133304691361812
1.03147665660	1.40416002274	0.258946339289	0.0745926177531242	0.952936806885511	-0.293849252950526
1.01944224040	1.11006005605	0.208046336969	0.218013849443637	-0.840545957007486	-0.495935939017466
0.811503966649	1.34052658081	0.354046662649	-0.942753259141815	0.333040659944115	0.0173266038644431
0.872970660528	1.10139338175	0.295613010724	-0.268325723696341	-0.937201498184759	-0.22283325111634
0.825704018275	1.36385997136	0.345513343811	-0.661439945304579	0.738007388735109	0.133575046052253
0.902438322703	1.09642664591	0.280979673068	-0.26871264771707	-0.937147260053141	-0.222594981820733
0.915438334147	1.34742673238	0.181579669317	-0.570644080716082	0.370241149805285	-0.732998515779233
1.01867564519	1.36815992991	0.388046344121	0.0861024485596461	0.57052225438666	0.816756221648538
0.894503990809	1.33239332835	0.187146345774	-0.46189730642417	0.484822494206998	-0.742696457127003
1.01890897751	1.37392663956	0.207646330198	0.27779318623033	0.74877204175664	-0.601806758991284
0.969907999039	1.40729331970	0.276879668236	-0.0376317731217643	0.972774936032466	-0.22867613228919
0.918872674306	1.17255997658	0.1822463274	-0.325551070884793	-0.229416501852312	-0.917270172263119
0.826903978984	1.33502658208	0.257312993209	-0.784387838247786	0.442436199608305	-0.434725118304803
1.03837664922	1.38575998942	0.227212985357	0.160446505611838	0.598593283722572	-0.784820361305171
0.990374644597	1.10992670059	0.19897967577	0.117557229901739	-0.818093102073327	-0.562942247515561
0.895605007807	1.39559332530	0.293346325556	-0.360205236790115	0.929626918936577	-0.0777558935223786
0.845937331518	1.35752662023	0.255412995815	-0.604628267694904	0.625136240822143	-0.493588227488277
0.83913731575	1.27986001968	0.232013007005	-0.778842289157199	-0.0747896872840435	-0.622744884600693
0.822670618693	1.30352656047	0.250479678313	-0.799809981132073	-0.0480832508939374	-0.59832432264198
1.00694227219	1.41072670619	0.283579667409	-0.056885781357064	0.970665850012527	-0.233606111861087
0.846970717112	1.37692674001	0.287913004557	-0.541664238073898	0.800449034843714	-0.256673325083832
0.850703954697	1.11855999629	0.285046339035	-0.700795207745555	-0.633194887963253	-0.328557925879239
0.974441369375	1.08416001002	0.259679675102	-0.172707752191915	-0.967517815486654	-0.184611237601478
0.834770679474	1.37122662862	0.359646320343	-0.741867903910307	0.668457688294753	0.0528803565358789
0.85717066129	1.29625995954	0.208413004875	-0.749172400850424	-0.0626899229422932	-0.659401764757648
1.05144341787	1.19509339333	0.209046343962	0.797168149336148	0.12281799023697	-0.591133388465016
0.873504002889	1.0962266922	0.327346324921	-0.270799529171277	-0.961076856018364	-0.0547621386221511
0.993874708811	1.15316001574	0.417079647382	0.432619852382082	-0.0802445241977677	0.897998262615902
1.01307566961	1.27339331309	0.405046343803	0.28817500297232	0.060057811546823	0.955692537866708
0.859270652135	1.38766002655	0.3412129879	-0.237155216714445	0.967937154506548	0.0827953387026788
1.03787565231	1.21796003977	0.38661301136	0.566688441746547	0.129753026634512	0.813651253345101
0.850104014079	1.10442662239	0.371646324793	-0.453625398351928	-0.887052414352608	-0.0858021687445185
1.03577566147	1.25222667058	0.390179673831	0.524453751890052	-0.203568479434	0.826745508792988
0.833803971608	1.13202667236	0.308946331342	-0.843406718247432	-0.523811436397287	-0.119526928825716
1.01977570852	1.16822671890	0.402879635493	0.526620360607077	0.0330855523378543	0.849456498015391
0.878337303797	1.39179340998	0.365046342214	-0.291735692551945	0.956155379812366	0.0256354314788621
1.00787464778	1.20429333051	0.408012986183	0.526127950757431	0.073539510503886	0.847219758874069
0.830104033152	1.36929321289	0.311946670214	-0.713782333566192	0.693516748506289	-0.0977205189817716
0.833403984706	1.12329339981	0.336012999217	-0.844553412734047	-0.481334721291308	-0.234619733012153
0.850837310155	1.10466003418	0.343846321106	-0.438147142345614	-0.898098525015295	0.0380278979135594
0.967773675919	1.40979337692	0.337746302287	-0.170636185849194	0.972709012298923	0.157227445032005
1.00140794118	1.41496006648	0.326213002205	-0.0537994728102961	0.988475336004529	0.141499564791092
0.808803955714	1.21609330177	0.28987967968	-0.992981886597954	-0.0835939558420637	-0.0836601663579671
0.810503959656	1.18166001638	0.32514633735	-0.960602772175918	-0.270321511339967	-0.0645646543769682
0.814537286758	1.19592666626	0.274412989616	-0.943303734609474	-0.228672352410177	-0.240597214271102
0.806170622508	1.21095991135	0.316112995148	-0.98753574814548	-0.0752410745027348	-0.138245892678304
0.820337295532	1.16032663981	0.303479671478	-0.917468656541995	-0.359401523874324	-0.170533893698115
0.949906984965	1.40956004461	0.315979639689	-0.196503124548922	0.971974572135325	0.129042447143813
0.821737289429	1.16945997874	0.278979659081	-0.915610551365859	-0.347179758022677	-0.202789382973622
0.9198726813	1.40282662710	0.322112997373	-0.188049204756188	0.97383002028307	0.127642423143876
